45.881855010986 2.190665721893 50.000000000000 0.000978 0.000978 0.999999
0.000000000000 7.772739887238 3.181878805161 -0.999999 -0.000978 0.000978
50.000000000000 48.293994903564 2.209313154221 0.999999 0.000978 0.000978
9.183574676514 43.750934600830 0.000000000000 0.000978 0.000978 -0.999999
0.000000000000 26.006540298462 48.179386138916 -0.999999 -0.000978 0.000978
14.377522468567 0.000000000000 39.156192779541 0.000978 -0.999999 0.000978
34.567310333252 19.002077102661 0.000000000000 0.000978 0.000978 -0.999999
39.440063476563 25.923355102539 0.000000000000 0.000978 0.000978 -0.999999
31.628566741943 30.501832962036 0.000000000000 0.000978 0.000978 -0.999999
14.654732704163 17.221738815308 0.000000000000 0.000978 0.000978 -0.999999
35.513935089111 0.000000000000 12.648865699768 0.000978 -0.999999 0.000978
25.225046157837 42.368549346924 50.000000000000 0.000978 0.000978 0.999999
34.298999786377 40.032138824463 0.000000000000 0.000978 0.000978 -0.999999
50.000000000000 13.834837913513 31.079067230225 0.999999 0.000978 0.000978
50.000000000000 36.324562072754 12.911813735962 0.999999 0.000978 0.000978
6.869856834412 50.000000000000 46.433349609375 0.000978 0.999999 0.000978
32.783332824707 24.742074966431 50.000000000000 0.000978 0.000978 0.999999
50.000000000000 36.158416748047 10.231126785278 0.999999 0.000978 0.000978
23.200157165527 46.824600219727 0.000000000000 0.000978 0.000978 -0.999999
0.000000000000 11.228390693665 46.160392761230 -0.999999 -0.000978 0.000978
38.601909637451 41.305248260498 0.000000000000 0.000978 0.000978 -0.999999
35.019241333008 50.000000000000 14.794629096985 0.000978 0.999999 0.000978
50.000000000000 40.467903137207 11.173742294312 0.999999 0.000978 0.000978
45.047218322754 48.864646911621 0.000000000000 0.000978 0.000978 -0.999999
11.463438987732 50.000000000000 0.014503553510 0.000978 0.999999 0.000978
17.585933685303 0.000000000000 18.753236770630 0.000978 -0.999999 0.000978
50.000000000000 16.315748214722 31.711839675903 0.999999 0.000978 0.000978
0.000000000000 1.608786702156 6.525979518890 -0.999999 -0.000978 0.000978
38.236049652100 21.773550033569 0.000000000000 0.000978 0.000978 -0.999999
0.000000000000 0.744835555553 1.922099471092 -0.999999 -0.000978 0.000978
0.000000000000 20.545120239258 17.894702911377 -0.999999 -0.000978 0.000978
0.000000000000 16.761850357056 3.337287902832 -0.999999 -0.000978 0.000978
0.000000000000 48.968547821045 3.197378396988 -0.999999 -0.000978 0.000978
25.453619003296 50.000000000000 38.462322235107 0.000978 0.999999 0.000978
48.543712615967 50.000000000000 29.656873703003 0.000978 0.999999 0.000978
0.000000000000 33.755344390869 24.482906341553 -0.999999 -0.000978 0.000978
27.077589035034 50.000000000000 25.291643142700 0.000978 0.999999 0.000978
0.000000000000 38.576900482178 31.582246780396 -0.999999 -0.000978 0.000978
10.594936370850 45.774833679199 50.000000000000 0.000978 0.000978 0.999999
0.000000000000 19.122833251953 24.463058471680 -0.999999 -0.000978 0.000978
50.000000000000 3.900131225586 41.944862365723 0.999999 0.000978 0.000978
5.758954048157 0.875462472439 50.000000000000 0.000978 0.000978 0.999999
0.235498800874 50.000000000000 29.570863723755 0.000978 0.999999 0.000978
0.397569388151 50.000000000000 45.991474151611 0.000978 0.999999 0.000978
24.246969223022 0.000000000000 48.223003387451 0.000978 -0.999999 0.000978
11.866144180298 26.577808380127 50.000000000000 0.000978 0.000978 0.999999
9.224489212036 0.000000000000 5.958479881287 0.000978 -0.999999 0.000978
0.000000000000 11.084928512573 7.635577678680 -0.999999 -0.000978 0.000978
32.088859558105 0.000000000000 33.697940826416 0.000978 -0.999999 0.000978
14.820025444031 0.000000000000 13.457194328308 0.000978 -0.999999 0.000978
0.000000000000 17.380594253540 2.323990583420 -0.999999 -0.000978 0.000978
0.000000000000 42.287345886230 31.278495788574 -0.999999 -0.000978 0.000978
44.105655670166 0.000000000000 23.183763504028 0.000978 -0.999999 0.000978
36.048187255859 0.000000000000 46.619834899902 0.000978 -0.999999 0.000978
47.125297546387 26.504451751709 0.000000000000 0.000978 0.000978 -0.999999
35.962707519531 50.000000000000 18.110874176025 0.000978 0.999999 0.000978
2.569687128067 50.000000000000 25.456825256348 0.000978 0.999999 0.000978
50.000000000000 13.496106147766 6.808753967285 0.999999 0.000978 0.000978
0.000000000000 7.101889133453 8.317851066589 -0.999999 -0.000978 0.000978
17.982978820801 10.582579612732 0.000000000000 0.000978 0.000978 -0.999999
34.804409027100 27.894746780396 50.000000000000 0.000978 0.000978 0.999999
0.000000000000 6.102282047272 38.587017059326 -0.999999 -0.000978 0.000978
41.777767181396 50.000000000000 33.031822204590 0.000978 0.999999 0.000978
50.000000000000 15.297846794128 27.535005569458 0.999999 0.000978 0.000978
37.207950592041 50.000000000000 48.254402160645 0.000978 0.999999 0.000978
0.000000000000 24.945550918579 18.673295974731 -0.999999 -0.000978 0.000978
16.375593185425 0.000000000000 30.033582687378 0.000978 -0.999999 0.000978
50.000000000000 5.009453296661 28.669731140137 0.999999 0.000978 0.000978
2.324306488037 50.000000000000 42.797374725342 0.000978 0.999999 0.000978
15.731363296509 8.540371894836 0.000000000000 0.000978 0.000978 -0.999999
0.000000000000 30.377103805542 41.277912139893 -0.999999 -0.000978 0.000978
8.471693038940 48.129261016846 0.000000000000 0.000978 0.000978 -0.999999
26.397340774536 17.511234283447 50.000000000000 0.000978 0.000978 0.999999
40.981910705566 0.000000000000 7.193257808685 0.000978 -0.999999 0.000978
0.000000000000 28.221899032593 34.130817413330 -0.999999 -0.000978 0.000978
50.000000000000 37.250572204590 27.234888076782 0.999999 0.000978 0.000978
37.534454345703 48.553318023682 50.000000000000 0.000978 0.000978 0.999999
13.159131050110 0.000000000000 1.307824134827 0.000978 -0.999999 0.000978
17.178731918335 50.000000000000 38.175659179688 0.000978 0.999999 0.000978
23.016468048096 39.583324432373 0.000000000000 0.000978 0.000978 -0.999999
39.946460723877 20.244258880615 50.000000000000 0.000978 0.000978 0.999999
0.000000000000 46.925094604492 36.512191772461 -0.999999 -0.000978 0.000978
37.302860260010 0.000000000000 6.187882423401 0.000978 -0.999999 0.000978
32.960376739502 36.996715545654 50.000000000000 0.000978 0.000978 0.999999
2.710784912109 0.000000000000 16.739044189453 0.000978 -0.999999 0.000978
30.652770996094 50.000000000000 8.099544525146 0.000978 0.999999 0.000978
1.994335770607 50.000000000000 0.380389541388 0.000978 0.999999 0.000978
8.556632041931 50.000000000000 30.381500244141 0.000978 0.999999 0.000978
33.600570678711 50.000000000000 46.593852996826 0.000978 0.999999 0.000978
46.204612731934 50.000000000000 4.752954483032 0.000978 0.999999 0.000978
11.757369041443 7.790134906769 50.000000000000 0.000978 0.000978 0.999999
50.000000000000 34.506240844727 46.430091857910 0.999999 0.000978 0.000978
26.560358047485 0.000000000000 16.729753494263 0.000978 -0.999999 0.000978
15.686613082886 6.646809577942 50.000000000000 0.000978 0.000978 0.999999
19.584238052368 49.058925628662 0.000000000000 0.000978 0.000978 -0.999999
17.924722671509 9.107256889343 0.000000000000 0.000978 0.000978 -0.999999
0.000000000000 10.791579246521 13.989756584167 -0.999999 -0.000978 0.000978
25.464605331421 38.604419708252 0.000000000000 0.000978 0.000978 -0.999999
15.997188568115 0.000000000000 23.997116088867 0.000978 -0.999999 0.000978
9.268370628357 0.000000000000 28.902782440186 0.000978 -0.999999 0.000978
50.000000000000 16.385126113892 21.176362991333 0.999999 0.000978 0.000978
38.659900665283 17.687038421631 0.000000000000 0.000978 0.000978 -0.999999
0.000000000000 34.627796173096 41.427799224854 -0.999999 -0.000978 0.000978
17.579839706421 24.818529129028 0.000000000000 0.000978 0.000978 -0.999999
33.800090789795 23.805007934570 0.000000000000 0.000978 0.000978 -0.999999
23.876729965210 0.000000000000 25.232803344727 0.000978 -0.999999 0.000978
11.405768394470 20.224422454834 50.000000000000 0.000978 0.000978 0.999999
0.000000000000 13.733531951904 8.070469856262 -0.999999 -0.000978 0.000978
50.000000000000 42.798274993896 9.710620880127 0.999999 0.000978 0.000978
0.000000000000 48.298236846924 10.223663330078 -0.999999 -0.000978 0.000978
9.411927223206 0.000000000000 0.721264839172 0.000978 -0.999999 0.000978
50.000000000000 34.415687561035 46.005626678467 0.999999 0.000978 0.000978
48.262691497803 0.000000000000 10.138051033020 0.000978 -0.999999 0.000978
0.000000000000 42.398002624512 38.813999176025 -0.999999 -0.000978 0.000978
33.889148712158 0.000000000000 40.823722839355 0.000978 -0.999999 0.000978
0.000000000000 42.515590667725 35.324100494385 -0.999999 -0.000978 0.000978
34.359188079834 2.900336742401 50.000000000000 0.000978 0.000978 0.999999
32.365245819092 47.150447845459 0.000000000000 0.000978 0.000978 -0.999999
0.000000000000 19.643621444702 19.472728729248 -0.999999 -0.000978 0.000978
19.517606735229 20.550947189331 50.000000000000 0.000978 0.000978 0.999999
8.921763420105 50.000000000000 31.287319183350 0.000978 0.999999 0.000978
39.908340454102 1.659419655800 50.000000000000 0.000978 0.000978 0.999999
50.000000000000 13.943253517151 48.284282684326 0.999999 0.000978 0.000978
0.000000000000 42.731952667236 42.512168884277 -0.999999 -0.000978 0.000978
0.000000000000 42.363204956055 45.061214447021 -0.999999 -0.000978 0.000978
29.012462615967 50.000000000000 28.327461242676 0.000978 0.999999 0.000978
1.901380538940 50.000000000000 19.187452316284 0.000978 0.999999 0.000978
28.154190063477 17.555772781372 50.000000000000 0.000978 0.000978 0.999999
42.913848876953 42.198577880859 0.000000000000 0.000978 0.000978 -0.999999
29.997072219849 50.000000000000 5.244087696075 0.000978 0.999999 0.000978
34.985607147217 29.904220581055 50.000000000000 0.000978 0.000978 0.999999
22.443717956543 39.411529541016 50.000000000000 0.000978 0.000978 0.999999
39.966854095459 0.000000000000 19.116849899292 0.000978 -0.999999 0.000978
50.000000000000 47.914829254150 16.993471145630 0.999999 0.000978 0.000978
0.000000000000 24.504371643066 23.457412719727 -0.999999 -0.000978 0.000978
29.471694946289 0.000000000000 11.468178749084 0.000978 -0.999999 0.000978
22.544057846069 0.000000000000 49.187004089355 0.000978 -0.999999 0.000978
2.298266649246 0.000000000000 26.478176116943 0.000978 -0.999999 0.000978
0.000000000000 41.709217071533 35.442123413086 -0.999999 -0.000978 0.000978
37.106029510498 32.770202636719 0.000000000000 0.000978 0.000978 -0.999999
4.480044364929 5.965775012970 50.000000000000 0.000978 0.000978 0.999999
50.000000000000 11.996857643127 40.595340728760 0.999999 0.000978 0.000978
0.000000000000 38.077114105225 20.135229110718 -0.999999 -0.000978 0.000978
38.671119689941 12.055586814880 0.000000000000 0.000978 0.000978 -0.999999
50.000000000000 35.083518981934 26.934312820435 0.999999 0.000978 0.000978
49.586509704590 2.709625482559 0.000000000000 0.000978 0.000978 -0.999999
50.000000000000 6.256453037262 12.811394691467 0.999999 0.000978 0.000978
11.345935821533 0.000000000000 37.315422058105 0.000978 -0.999999 0.000978
5.197806835175 41.161716461182 50.000000000000 0.000978 0.000978 0.999999
41.956439971924 0.000000000000 38.316123962402 0.000978 -0.999999 0.000978
50.000000000000 48.796875000000 10.883636474609 0.999999 0.000978 0.000978
48.912097930908 44.923305511475 50.000000000000 0.000978 0.000978 0.999999
0.000000000000 36.730560302734 38.219055175781 -0.999999 -0.000978 0.000978
0.901407361031 0.000000000000 29.503747940063 0.000978 -0.999999 0.000978
50.000000000000 21.989151000977 20.499578475952 0.999999 0.000978 0.000978
50.000000000000 26.375276565552 26.144779205322 0.999999 0.000978 0.000978
37.053455352783 40.465114593506 50.000000000000 0.000978 0.000978 0.999999
50.000000000000 45.629146575928 46.027320861816 0.999999 0.000978 0.000978
24.813140869141 7.742921352386 0.000000000000 0.000978 0.000978 -0.999999
2.716687202454 35.843235015869 50.000000000000 0.000978 0.000978 0.999999
50.000000000000 22.982099533081 38.536453247070 0.999999 0.000978 0.000978
22.755920410156 0.000000000000 1.609714388847 0.000978 -0.999999 0.000978
0.000000000000 36.576545715332 46.683650970459 -0.999999 -0.000978 0.000978
47.628845214844 0.000000000000 31.521537780762 0.000978 -0.999999 0.000978
8.530428886414 50.000000000000 7.612524509430 0.000978 0.999999 0.000978
50.000000000000 39.768074035645 13.207700729370 0.999999 0.000978 0.000978
34.567157745361 50.000000000000 17.874389648438 0.000978 0.999999 0.000978
15.385123252869 29.036718368530 0.000000000000 0.000978 0.000978 -0.999999
50.000000000000 41.569664001465 11.472031593323 0.999999 0.000978 0.000978
31.181203842163 50.000000000000 41.505718231201 0.000978 0.999999 0.000978
19.933622360229 44.186840057373 50.000000000000 0.000978 0.000978 0.999999
50.000000000000 41.141841888428 32.044734954834 0.999999 0.000978 0.000978
0.000000000000 33.973846435547 19.620683670044 -0.999999 -0.000978 0.000978
6.911938190460 12.180718421936 0.000000000000 0.000978 0.000978 -0.999999
20.369049072266 50.000000000000 11.551571846008 0.000978 0.999999 0.000978
10.753920555115 50.000000000000 23.685426712036 0.000978 0.999999 0.000978
0.000000000000 8.687522888184 15.050812721252 -0.999999 -0.000978 0.000978
4.167489051819 50.000000000000 19.836837768555 0.000978 0.999999 0.000978
41.980232238770 6.241812705994 50.000000000000 0.000978 0.000978 0.999999
10.214971542358 50.000000000000 44.337871551514 0.000978 0.999999 0.000978
13.046757698059 0.000000000000 31.379428863525 0.000978 -0.999999 0.000978
20.866342544556 16.091875076294 50.000000000000 0.000978 0.000978 0.999999
40.053817749023 50.000000000000 31.716089248657 0.000978 0.999999 0.000978
40.518192291260 4.708677291870 0.000000000000 0.000978 0.000978 -0.999999
46.380035400391 15.056551933289 50.000000000000 0.000978 0.000978 0.999999
26.253707885742 0.000000000000 19.893531799316 0.000978 -0.999999 0.000978
50.000000000000 35.341163635254 38.879470825195 0.999999 0.000978 0.000978
0.000000000000 33.444858551025 1.133570075035 -0.999999 -0.000978 0.000978
13.416024208069 0.000000000000 42.306598663330 0.000978 -0.999999 0.000978
19.812067031860 50.000000000000 23.075452804565 0.000978 0.999999 0.000978
45.400844573975 48.071971893311 50.000000000000 0.000978 0.000978 0.999999
17.978206634521 0.000000000000 5.890690326691 0.000978 -0.999999 0.000978
0.000000000000 10.470934867859 25.309528350830 -0.999999 -0.000978 0.000978
49.727153778076 40.844047546387 0.000000000000 0.000978 0.000978 -0.999999
44.677391052246 50.000000000000 2.899832248688 0.000978 0.999999 0.000978
29.237939834595 50.000000000000 47.534397125244 0.000978 0.999999 0.000978
41.084079742432 4.810600280762 0.000000000000 0.000978 0.000978 -0.999999
40.836585998535 0.000000000000 5.348338603973 0.000978 -0.999999 0.000978
0.000000000000 38.035163879395 14.721253395081 -0.999999 -0.000978 0.000978
14.223464012146 35.135532379150 50.000000000000 0.000978 0.000978 0.999999
0.000000000000 38.837467193604 25.097070693970 -0.999999 -0.000978 0.000978
0.000000000000 2.955764532089 7.186117172241 -0.999999 -0.000978 0.000978
36.992137908936 15.758699417114 50.000000000000 0.000978 0.000978 0.999999
43.419136047363 24.689983367920 50.000000000000 0.000978 0.000978 0.999999
0.000000000000 37.733852386475 25.865686416626 -0.999999 -0.000978 0.000978
12.532861709595 0.000000000000 48.385665893555 0.000978 -0.999999 0.000978
5.000656127930 28.913236618042 0.000000000000 0.000978 0.000978 -0.999999
0.000000000000 24.862033843994 35.783733367920 -0.999999 -0.000978 0.000978
40.645999908447 38.101905822754 50.000000000000 0.000978 0.000978 0.999999
8.945242881775 31.793600082397 50.000000000000 0.000978 0.000978 0.999999
35.664356231689 38.684520721436 0.000000000000 0.000978 0.000978 -0.999999
26.543155670166 0.000000000000 23.514896392822 0.000978 -0.999999 0.000978
37.846897125244 48.272346496582 0.000000000000 0.000978 0.000978 -0.999999
50.000000000000 18.475500106812 2.865579605103 0.999999 0.000978 0.000978
42.412220001221 2.115989685059 50.000000000000 0.000978 0.000978 0.999999
50.000000000000 39.604137420654 26.003276824951 0.999999 0.000978 0.000978
14.510713577271 0.000000000000 33.367660522461 0.000978 -0.999999 0.000978
5.776885986328 0.000000000000 3.675436258316 0.000978 -0.999999 0.000978
1.032595515251 0.000000000000 19.287820816040 0.000978 -0.999999 0.000978
19.287919998169 43.671894073486 0.000000000000 0.000978 0.000978 -0.999999
21.096824645996 44.639995574951 0.000000000000 0.000978 0.000978 -0.999999
45.296031951904 15.637270927429 50.000000000000 0.000978 0.000978 0.999999
0.000000000000 14.400309562683 26.533105850220 -0.999999 -0.000978 0.000978
33.107353210449 43.644577026367 50.000000000000 0.000978 0.000978 0.999999
0.480424642563 50.000000000000 2.320635557175 0.000978 0.999999 0.000978
2.999436616898 0.000000000000 6.191035270691 0.000978 -0.999999 0.000978
50.000000000000 11.465909004211 40.583061218262 0.999999 0.000978 0.000978
0.000000000000 29.149181365967 20.392969131470 -0.999999 -0.000978 0.000978
39.699558258057 3.624756336212 50.000000000000 0.000978 0.000978 0.999999
10.209748268127 46.375347137451 0.000000000000 0.000978 0.000978 -0.999999
25.327753067017 14.344379425049 50.000000000000 0.000978 0.000978 0.999999
24.503564834595 38.606704711914 50.000000000000 0.000978 0.000978 0.999999
24.516126632690 16.649095535278 0.000000000000 0.000978 0.000978 -0.999999
40.936851501465 48.958152770996 50.000000000000 0.000978 0.000978 0.999999
41.381080627441 0.000000000000 14.991170883179 0.000978 -0.999999 0.000978
30.484083175659 20.967813491821 0.000000000000 0.000978 0.000978 -0.999999
13.576358795166 39.544170379639 0.000000000000 0.000978 0.000978 -0.999999
44.918376922607 29.205360412598 50.000000000000 0.000978 0.000978 0.999999
0.000000000000 5.146093368530 7.588622093201 -0.999999 -0.000978 0.000978
0.000000000000 41.286964416504 15.581789016724 -0.999999 -0.000978 0.000978
0.000000000000 31.841461181641 22.935564041138 -0.999999 -0.000978 0.000978
5.570299148560 4.013557910919 0.000000000000 0.000978 0.000978 -0.999999
48.820930480957 50.000000000000 43.884643554688 0.000978 0.999999 0.000978
40.280994415283 49.915859222412 50.000000000000 0.000978 0.000978 0.999999
50.000000000000 14.077411651611 14.980583190918 0.999999 0.000978 0.000978
50.000000000000 0.954627335072 1.275895357132 0.999999 0.000978 0.000978
12.605899810791 0.106799222529 0.000000000000 0.000978 0.000978 -0.999999
38.903915405273 35.050979614258 50.000000000000 0.000978 0.000978 0.999999
19.946083068848 50.000000000000 39.451473236084 0.000978 0.999999 0.000978
33.081657409668 35.701099395752 0.000000000000 0.000978 0.000978 -0.999999
27.925149917603 0.000000000000 20.940559387207 0.000978 -0.999999 0.000978
15.554497718811 50.000000000000 26.275943756104 0.000978 0.999999 0.000978
50.000000000000 33.447029113770 25.111234664917 0.999999 0.000978 0.000978
22.543346405029 0.000000000000 44.494762420654 0.000978 -0.999999 0.000978
31.298931121826 50.000000000000 48.042304992676 0.000978 0.999999 0.000978
29.965518951416 0.000000000000 16.588575363159 0.000978 -0.999999 0.000978
33.284839630127 0.000000000000 3.460691213608 0.000978 -0.999999 0.000978
47.621196746826 16.931812286377 0.000000000000 0.000978 0.000978 -0.999999
16.871156692505 23.727149963379 50.000000000000 0.000978 0.000978 0.999999
4.662455081940 0.000000000000 8.940310478210 0.000978 -0.999999 0.000978
16.240688323975 6.460199832916 50.000000000000 0.000978 0.000978 0.999999
50.000000000000 31.031673431396 2.129499673843 0.999999 0.000978 0.000978
5.199848175049 50.000000000000 37.641315460205 0.000978 0.999999 0.000978
24.089286804199 43.373199462891 0.000000000000 0.000978 0.000978 -0.999999
16.466939926147 50.000000000000 38.642608642578 0.000978 0.999999 0.000978
3.115111827850 50.000000000000 21.444160461426 0.000978 0.999999 0.000978
0.000000000000 35.781101226807 44.518169403076 -0.999999 -0.000978 0.000978
5.578336238861 10.551188468933 0.000000000000 0.000978 0.000978 -0.999999
50.000000000000 10.900115013123 28.240663528442 0.999999 0.000978 0.000978
36.469444274902 1.887219309807 0.000000000000 0.000978 0.000978 -0.999999
50.000000000000 27.068084716797 14.009785652161 0.999999 0.000978 0.000978
0.000000000000 8.668542861938 30.768909454346 -0.999999 -0.000978 0.000978
22.748960494995 50.000000000000 47.569248199463 0.000978 0.999999 0.000978
22.089191436768 8.251585006714 50.000000000000 0.000978 0.000978 0.999999
9.595054626465 34.467586517334 50.000000000000 0.000978 0.000978 0.999999
11.146543502808 0.000000000000 25.249942779541 0.000978 -0.999999 0.000978
50.000000000000 37.239135742188 41.412059783936 0.999999 0.000978 0.000978
29.999542236328 50.000000000000 49.020240783691 0.000978 0.999999 0.000978
38.831237792969 11.069804191589 0.000000000000 0.000978 0.000978 -0.999999
8.853819847107 0.000000000000 35.877990722656 0.000978 -0.999999 0.000978
49.041568756104 39.955276489258 50.000000000000 0.000978 0.000978 0.999999
0.000000000000 37.127262115479 29.748414993286 -0.999999 -0.000978 0.000978
28.688240051270 38.414299011230 0.000000000000 0.000978 0.000978 -0.999999
35.235301971436 50.000000000000 31.123809814453 0.000978 0.999999 0.000978
50.000000000000 5.893022537231 20.853565216064 0.999999 0.000978 0.000978
0.000000000000 48.550388336182 22.120719909668 -0.999999 -0.000978 0.000978
35.532752990723 41.086780548096 50.000000000000 0.000978 0.000978 0.999999
0.324858635664 40.566844940186 0.000000000000 0.000978 0.000978 -0.999999
38.448905944824 34.193584442139 50.000000000000 0.000978 0.000978 0.999999
32.006950378418 40.117065429688 0.000000000000 0.000978 0.000978 -0.999999
9.433059692383 7.642135620117 50.000000000000 0.000978 0.000978 0.999999
26.027555465698 19.071649551392 0.000000000000 0.000978 0.000978 -0.999999
0.000000000000 34.273208618164 48.878421783447 -0.999999 -0.000978 0.000978
30.606414794922 50.000000000000 17.294315338135 0.000978 0.999999 0.000978
33.366672515869 50.000000000000 16.310310363770 0.000978 0.999999 0.000978
24.964868545532 0.000000000000 4.723304271698 0.000978 -0.999999 0.000978
44.880622863770 0.000000000000 44.215244293213 0.000978 -0.999999 0.000978
41.333560943604 0.000000000000 33.994621276855 0.000978 -0.999999 0.000978
0.000000000000 38.692352294922 30.668590545654 -0.999999 -0.000978 0.000978
0.000000000000 33.129833221436 33.381683349609 -0.999999 -0.000978 0.000978
4.501358509064 20.903337478638 0.000000000000 0.000978 0.000978 -0.999999
20.579008102417 0.000000000000 8.666808128357 0.000978 -0.999999 0.000978
50.000000000000 48.016563415527 37.215141296387 0.999999 0.000978 0.000978
50.000000000000 15.974921226501 41.177787780762 0.999999 0.000978 0.000978
0.000000000000 45.537891387939 34.098690032959 -0.999999 -0.000978 0.000978
50.000000000000 45.979457855225 30.695562362671 0.999999 0.000978 0.000978
23.409080505371 50.000000000000 14.740901947021 0.000978 0.999999 0.000978
45.364040374756 13.373637199402 0.000000000000 0.000978 0.000978 -0.999999
0.000000000000 4.586412906647 41.978786468506 -0.999999 -0.000978 0.000978
50.000000000000 26.191751480103 25.371490478516 0.999999 0.000978 0.000978
11.271009445190 0.000000000000 40.905158996582 0.000978 -0.999999 0.000978
38.075012207031 0.000000000000 19.897563934326 0.000978 -0.999999 0.000978
50.000000000000 25.800075531006 16.782188415527 0.999999 0.000978 0.000978
24.842514038086 0.000000000000 43.519863128662 0.000978 -0.999999 0.000978
42.909149169922 0.000000000000 10.395287513733 0.000978 -0.999999 0.000978
46.668376922607 50.000000000000 48.802364349365 0.000978 0.999999 0.000978
37.154331207275 0.000000000000 10.484706878662 0.000978 -0.999999 0.000978
0.000000000000 6.734433650970 7.251449584961 -0.999999 -0.000978 0.000978
30.227502822876 49.850288391113 0.000000000000 0.000978 0.000978 -0.999999
0.000000000000 22.515415191650 39.898326873779 -0.999999 -0.000978 0.000978
0.000000000000 2.618782758713 13.286643028259 -0.999999 -0.000978 0.000978
36.216579437256 0.000000000000 15.842248916626 0.000978 -0.999999 0.000978
0.000000000000 23.103824615479 24.699411392212 -0.999999 -0.000978 0.000978
40.581344604492 0.000000000000 40.295749664307 0.000978 -0.999999 0.000978
50.000000000000 4.859629154205 46.148952484131 0.999999 0.000978 0.000978
20.590682983398 18.317251205444 50.000000000000 0.000978 0.000978 0.999999
3.939918518066 48.700839996338 50.000000000000 0.000978 0.000978 0.999999
15.613862037659 50.000000000000 16.584897994995 0.000978 0.999999 0.000978
27.834068298340 50.000000000000 35.589046478271 0.000978 0.999999 0.000978
38.667915344238 8.919291496277 50.000000000000 0.000978 0.000978 0.999999
50.000000000000 28.701118469238 28.692718505859 0.999999 0.000978 0.000978
9.183919906616 8.620916366577 50.000000000000 0.000978 0.000978 0.999999
0.000000000000 0.817330718040 6.781796932220 -0.999999 -0.000978 0.000978
5.913277626038 15.469061851501 50.000000000000 0.000978 0.000978 0.999999
18.033388137817 46.242519378662 50.000000000000 0.000978 0.000978 0.999999
50.000000000000 9.840395927429 16.093833923340 0.999999 0.000978 0.000978
50.000000000000 32.847637176514 11.393971443176 0.999999 0.000978 0.000978
0.000000000000 39.494609832764 20.185571670532 -0.999999 -0.000978 0.000978
39.726097106934 37.643787384033 0.000000000000 0.000978 0.000978 -0.999999
0.000000000000 8.540589332581 31.456045150757 -0.999999 -0.000978 0.000978
50.000000000000 4.473956584930 26.721498489380 0.999999 0.000978 0.000978
15.535835266113 39.222560882568 50.000000000000 0.000978 0.000978 0.999999
48.578952789307 41.594360351563 50.000000000000 0.000978 0.000978 0.999999
23.823545455933 16.284698486328 0.000000000000 0.000978 0.000978 -0.999999
0.000000000000 48.056049346924 39.999713897705 -0.999999 -0.000978 0.000978
24.430990219116 50.000000000000 43.569667816162 0.000978 0.999999 0.000978
23.244525909424 8.787277221680 50.000000000000 0.000978 0.000978 0.999999
50.000000000000 8.583928108215 31.066053390503 0.999999 0.000978 0.000978
25.152763366699 10.106459617615 0.000000000000 0.000978 0.000978 -0.999999
38.602844238281 19.059690475464 0.000000000000 0.000978 0.000978 -0.999999
3.867612838745 0.000000000000 32.848613739014 0.000978 -0.999999 0.000978
2.868097305298 0.000000000000 1.691682815552 0.000978 -0.999999 0.000978
50.000000000000 32.924304962158 37.713581085205 0.999999 0.000978 0.000978
0.498026281595 0.000000000000 25.802547454834 0.000978 -0.999999 0.000978
39.467136383057 2.113338470459 0.000000000000 0.000978 0.000978 -0.999999
20.411733627319 20.178560256958 0.000000000000 0.000978 0.000978 -0.999999
10.346660614014 50.000000000000 48.932983398438 0.000978 0.999999 0.000978
49.077476501465 50.000000000000 9.811374664307 0.000978 0.999999 0.000978
50.000000000000 14.285959243774 22.619533538818 0.999999 0.000978 0.000978
0.000000000000 44.246356964111 46.044975280762 -0.999999 -0.000978 0.000978
0.000000000000 8.775136947632 47.987449645996 -0.999999 -0.000978 0.000978
0.000000000000 43.819293975830 31.635576248169 -0.999999 -0.000978 0.000978
50.000000000000 29.774105072021 1.909672498703 0.999999 0.000978 0.000978
39.603698730469 50.000000000000 1.930320739746 0.000978 0.999999 0.000978
50.000000000000 29.694068908691 24.475519180298 0.999999 0.000978 0.000978
0.000000000000 4.043257713318 46.509674072266 -0.999999 -0.000978 0.000978
44.242694854736 40.424835205078 0.000000000000 0.000978 0.000978 -0.999999
0.462795555592 49.229366302490 50.000000000000 0.000978 0.000978 0.999999
49.473335266113 32.958862304688 50.000000000000 0.000978 0.000978 0.999999
30.846626281738 0.000000000000 47.077545166016 0.000978 -0.999999 0.000978
48.714790344238 0.000000000000 28.113176345825 0.000978 -0.999999 0.000978
17.672279357910 0.000000000000 5.150968074799 0.000978 -0.999999 0.000978
0.000000000000 49.899475097656 16.684490203857 -0.999999 -0.000978 0.000978
30.362245559692 31.184947967529 0.000000000000 0.000978 0.000978 -0.999999
30.182792663574 50.000000000000 39.759193420410 0.000978 0.999999 0.000978
23.650203704834 27.375236511230 50.000000000000 0.000978 0.000978 0.999999
46.757419586182 21.948261260986 50.000000000000 0.000978 0.000978 0.999999
26.133378982544 0.000000000000 35.699199676514 0.000978 -0.999999 0.000978
2.731610298157 39.911289215088 50.000000000000 0.000978 0.000978 0.999999
0.000000000000 33.098304748535 22.980369567871 -0.999999 -0.000978 0.000978
15.991009712219 50.000000000000 40.130237579346 0.000978 0.999999 0.000978
28.605506896973 10.094796180725 0.000000000000 0.000978 0.000978 -0.999999
12.915520668030 43.428665161133 0.000000000000 0.000978 0.000978 -0.999999
0.000000000000 45.962184906006 22.052198410034 -0.999999 -0.000978 0.000978
50.000000000000 19.196741104126 48.872386932373 0.999999 0.000978 0.000978
50.000000000000 27.828643798828 27.929090499878 0.999999 0.000978 0.000978
0.000000000000 3.137878656387 0.600604653358 -0.999999 -0.000978 0.000978
10.407590866089 29.547483444214 50.000000000000 0.000978 0.000978 0.999999
35.452381134033 16.705505371094 0.000000000000 0.000978 0.000978 -0.999999
25.840541839600 0.000000000000 2.695401191711 0.000978 -0.999999 0.000978
37.014415740967 50.000000000000 34.834877014160 0.000978 0.999999 0.000978
1.977180838585 11.249396324158 50.000000000000 0.000978 0.000978 0.999999
19.099285125732 0.000000000000 33.302322387695 0.000978 -0.999999 0.000978
44.624874114990 1.074828505516 50.000000000000 0.000978 0.000978 0.999999
46.981464385986 19.542022705078 0.000000000000 0.000978 0.000978 -0.999999
13.902333259583 0.000000000000 25.635690689087 0.000978 -0.999999 0.000978
50.000000000000 36.129821777344 23.378091812134 0.999999 0.000978 0.000978
0.000000000000 37.058010101318 21.842082977295 -0.999999 -0.000978 0.000978
18.704051971436 0.000000000000 48.034999847412 0.000978 -0.999999 0.000978
43.628322601318 49.617774963379 0.000000000000 0.000978 0.000978 -0.999999
36.114356994629 11.418039321899 50.000000000000 0.000978 0.000978 0.999999
27.211172103882 42.436073303223 0.000000000000 0.000978 0.000978 -0.999999
20.859016418457 21.423782348633 50.000000000000 0.000978 0.000978 0.999999
28.860954284668 30.007026672363 0.000000000000 0.000978 0.000978 -0.999999
4.907619476318 41.619724273682 50.000000000000 0.000978 0.000978 0.999999
2.066895723343 31.566320419312 0.000000000000 0.000978 0.000978 -0.999999
8.688465118408 50.000000000000 44.074062347412 0.000978 0.999999 0.000978
23.194499969482 17.818750381470 50.000000000000 0.000978 0.000978 0.999999
27.961259841919 23.308406829834 0.000000000000 0.000978 0.000978 -0.999999
0.000000000000 29.709779739380 34.724121093750 -0.999999 -0.000978 0.000978
0.000000000000 15.082906723022 9.050173759460 -0.999999 -0.000978 0.000978
25.991523742676 33.775684356689 0.000000000000 0.000978 0.000978 -0.999999
0.000000000000 0.404733926058 10.703023910522 -0.999999 -0.000978 0.000978
50.000000000000 29.997037887573 21.202499389648 0.999999 0.000978 0.000978
41.816459655762 23.948930740356 0.000000000000 0.000978 0.000978 -0.999999
0.331438124180 0.000000000000 37.894355773926 0.000978 -0.999999 0.000978
50.000000000000 27.064189910889 0.302441298962 0.999999 0.000978 0.000978
22.388187408447 50.000000000000 5.946980953217 0.000978 0.999999 0.000978
35.919990539551 0.000000000000 48.682056427002 0.000978 -0.999999 0.000978
15.109986305237 0.000000000000 39.119392395020 0.000978 -0.999999 0.000978
50.000000000000 44.335208892822 10.051065444946 0.999999 0.000978 0.000978
46.494651794434 40.544456481934 50.000000000000 0.000978 0.000978 0.999999
50.000000000000 15.162389755249 42.393577575684 0.999999 0.000978 0.000978
46.832603454590 50.000000000000 12.698120117188 0.000978 0.999999 0.000978
0.000000000000 30.863775253296 21.769792556763 -0.999999 -0.000978 0.000978
50.000000000000 9.332643508911 48.315689086914 0.999999 0.000978 0.000978
27.418552398682 10.183764457703 50.000000000000 0.000978 0.000978 0.999999
5.493538379669 50.000000000000 42.896099090576 0.000978 0.999999 0.000978
28.027082443237 5.083578586578 0.000000000000 0.000978 0.000978 -0.999999
17.164344787598 1.532116293907 0.000000000000 0.000978 0.000978 -0.999999
0.000000000000 47.252807617188 18.720832824707 -0.999999 -0.000978 0.000978
5.386859416962 32.851226806641 0.000000000000 0.000978 0.000978 -0.999999
23.539999008179 0.000000000000 31.583320617676 0.000978 -0.999999 0.000978
0.000000000000 11.875482559204 6.426568984985 -0.999999 -0.000978 0.000978
0.000000000000 20.508340835571 48.513397216797 -0.999999 -0.000978 0.000978
28.334262847900 50.000000000000 5.697626590729 0.000978 0.999999 0.000978
0.000000000000 23.210613250732 20.613164901733 -0.999999 -0.000978 0.000978
32.609367370605 0.000000000000 35.264068603516 0.000978 -0.999999 0.000978
50.000000000000 16.919322967529 23.351922988892 0.999999 0.000978 0.000978
50.000000000000 42.943077087402 34.545719146729 0.999999 0.000978 0.000978
0.000000000000 14.917987823486 31.564731597900 -0.999999 -0.000978 0.000978
50.000000000000 17.536678314209 45.009414672852 0.999999 0.000978 0.000978
50.000000000000 48.689800262451 34.908649444580 0.999999 0.000978 0.000978
44.146823883057 50.000000000000 2.664614915848 0.000978 0.999999 0.000978
36.985843658447 43.130859375000 0.000000000000 0.000978 0.000978 -0.999999
0.000000000000 17.859432220459 34.841873168945 -0.999999 -0.000978 0.000978
16.391027450562 37.800418853760 50.000000000000 0.000978 0.000978 0.999999
0.000000000000 48.207790374756 25.666751861572 -0.999999 -0.000978 0.000978
27.553186416626 3.672868013382 0.000000000000 0.000978 0.000978 -0.999999
0.460950285196 50.000000000000 16.265655517578 0.000978 0.999999 0.000978
17.112337112427 35.098068237305 0.000000000000 0.000978 0.000978 -0.999999
0.000000000000 2.303496360779 2.461498022079 -0.999999 -0.000978 0.000978
4.358241081238 44.283248901367 50.000000000000 0.000978 0.000978 0.999999
0.000000000000 6.894388675690 49.558967590332 -0.999999 -0.000978 0.000978
15.695362091064 43.317382812500 0.000000000000 0.000978 0.000978 -0.999999
50.000000000000 21.931060791016 16.560525894165 0.999999 0.000978 0.000978
11.510948181152 50.000000000000 35.349750518799 0.000978 0.999999 0.000978
43.847240447998 50.000000000000 37.671657562256 0.000978 0.999999 0.000978
13.195918083191 0.000000000000 35.790870666504 0.000978 -0.999999 0.000978
44.044925689697 10.515750885010 0.000000000000 0.000978 0.000978 -0.999999
4.951022148132 24.377090454102 50.000000000000 0.000978 0.000978 0.999999
50.000000000000 3.522338628769 43.911270141602 0.999999 0.000978 0.000978
26.080184936523 0.000000000000 41.732593536377 0.000978 -0.999999 0.000978
50.000000000000 34.340744018555 9.221655845642 0.999999 0.000978 0.000978
8.454621315002 0.000000000000 15.068400382996 0.000978 -0.999999 0.000978
38.703559875488 24.495389938354 0.000000000000 0.000978 0.000978 -0.999999
45.879280090332 2.160728931427 0.000000000000 0.000978 0.000978 -0.999999
20.586042404175 0.000000000000 18.116373062134 0.000978 -0.999999 0.000978
28.225610733032 30.039836883545 50.000000000000 0.000978 0.000978 0.999999
0.000000000000 8.437725067139 34.964660644531 -0.999999 -0.000978 0.000978
10.367212295532 19.580829620361 50.000000000000 0.000978 0.000978 0.999999
17.959167480469 0.000000000000 19.289419174194 0.000978 -0.999999 0.000978
2.715920925140 22.343982696533 0.000000000000 0.000978 0.000978 -0.999999
34.681613922119 5.088175773621 0.000000000000 0.000978 0.000978 -0.999999
0.000000000000 25.563758850098 49.023960113525 -0.999999 -0.000978 0.000978
0.000000000000 35.309749603271 11.132436752319 -0.999999 -0.000978 0.000978
0.000000000000 5.853702068329 25.280698776245 -0.999999 -0.000978 0.000978
36.693897247314 20.456989288330 50.000000000000 0.000978 0.000978 0.999999
50.000000000000 22.878602981567 11.979469299316 0.999999 0.000978 0.000978
0.000000000000 37.920787811279 0.915156960487 -0.999999 -0.000978 0.000978
29.135656356812 0.000000000000 34.907234191895 0.000978 -0.999999 0.000978
50.000000000000 31.418056488037 6.246935367584 0.999999 0.000978 0.000978
6.678141593933 30.595535278320 50.000000000000 0.000978 0.000978 0.999999
38.059692382813 50.000000000000 17.570119857788 0.000978 0.999999 0.000978
50.000000000000 10.518692016602 17.416391372681 0.999999 0.000978 0.000978
0.000000000000 17.683723449707 32.355224609375 -0.999999 -0.000978 0.000978
49.278812408447 0.000000000000 5.530286312103 0.000978 -0.999999 0.000978
0.424755811691 12.681354522705 50.000000000000 0.000978 0.000978 0.999999
50.000000000000 1.085291624069 37.714229583740 0.999999 0.000978 0.000978
0.000000000000 39.339237213135 12.788784980774 -0.999999 -0.000978 0.000978
16.334852218628 42.616119384766 0.000000000000 0.000978 0.000978 -0.999999
38.114124298096 50.000000000000 43.229587554932 0.000978 0.999999 0.000978
0.000000000000 32.822906494141 10.732272148132 -0.999999 -0.000978 0.000978
20.650556564331 20.889053344727 0.000000000000 0.000978 0.000978 -0.999999
49.216365814209 8.658864021301 50.000000000000 0.000978 0.000978 0.999999
28.113786697388 50.000000000000 17.661302566528 0.000978 0.999999 0.000978
50.000000000000 45.915550231934 45.413162231445 0.999999 0.000978 0.000978
14.633398056030 25.822259902954 0.000000000000 0.000978 0.000978 -0.999999
30.300960540771 39.304622650146 0.000000000000 0.000978 0.000978 -0.999999
49.296745300293 5.087621212006 50.000000000000 0.000978 0.000978 0.999999
24.827674865723 35.828849792480 50.000000000000 0.000978 0.000978 0.999999
22.964149475098 47.989562988281 50.000000000000 0.000978 0.000978 0.999999
1.092857003212 10.710378646851 0.000000000000 0.000978 0.000978 -0.999999
50.000000000000 41.925003051758 31.716945648193 0.999999 0.000978 0.000978
23.395343780518 43.885665893555 50.000000000000 0.000978 0.000978 0.999999
38.267978668213 27.395435333252 0.000000000000 0.000978 0.000978 -0.999999
4.254122257233 3.633053541183 0.000000000000 0.000978 0.000978 -0.999999
50.000000000000 1.917020082474 14.879799842834 0.999999 0.000978 0.000978
50.000000000000 47.405540466309 4.149091720581 0.999999 0.000978 0.000978
4.381002902985 12.538382530212 50.000000000000 0.000978 0.000978 0.999999
17.952911376953 44.835842132568 0.000000000000 0.000978 0.000978 -0.999999
29.853738784790 2.077141046524 50.000000000000 0.000978 0.000978 0.999999
0.000000000000 24.426267623901 33.056495666504 -0.999999 -0.000978 0.000978
15.785688400269 0.000000000000 19.982877731323 0.000978 -0.999999 0.000978
28.402122497559 49.632839202881 50.000000000000 0.000978 0.000978 0.999999
0.000000000000 18.145977020264 28.706275939941 -0.999999 -0.000978 0.000978
0.000000000000 42.120670318604 18.048574447632 -0.999999 -0.000978 0.000978
50.000000000000 34.305091857910 4.681232452393 0.999999 0.000978 0.000978
25.869674682617 0.000000000000 49.903278350830 0.000978 -0.999999 0.000978
3.842506408691 30.854335784912 50.000000000000 0.000978 0.000978 0.999999
37.061843872070 22.100355148315 0.000000000000 0.000978 0.000978 -0.999999
42.809085845947 50.000000000000 18.261184692383 0.000978 0.999999 0.000978
28.965450286865 23.866222381592 50.000000000000 0.000978 0.000978 0.999999
50.000000000000 7.541087150574 11.030068397522 0.999999 0.000978 0.000978
27.600786209106 22.052413940430 50.000000000000 0.000978 0.000978 0.999999
10.493087768555 18.137916564941 0.000000000000 0.000978 0.000978 -0.999999
19.029546737671 0.000000000000 14.233743667603 0.000978 -0.999999 0.000978
22.961450576782 27.684061050415 50.000000000000 0.000978 0.000978 0.999999
49.983722686768 37.065826416016 50.000000000000 0.000978 0.000978 0.999999
4.480626583099 0.000000000000 1.809788942337 0.000978 -0.999999 0.000978
7.498651981354 19.557073593140 0.000000000000 0.000978 0.000978 -0.999999
50.000000000000 19.327009201050 23.579856872559 0.999999 0.000978 0.000978
27.037487030029 0.000000000000 13.376203536987 0.000978 -0.999999 0.000978
16.841442108154 32.967674255371 0.000000000000 0.000978 0.000978 -0.999999
45.362770080566 35.847496032715 50.000000000000 0.000978 0.000978 0.999999
32.883541107178 13.916393280029 0.000000000000 0.000978 0.000978 -0.999999
0.136466875672 37.636928558350 50.000000000000 0.000978 0.000978 0.999999
14.216826438904 49.196922302246 50.000000000000 0.000978 0.000978 0.999999
50.000000000000 41.761569976807 46.439949035645 0.999999 0.000978 0.000978
50.000000000000 3.629070758820 10.097108840942 0.999999 0.000978 0.000978
46.914741516113 0.000000000000 20.361549377441 0.000978 -0.999999 0.000978
50.000000000000 14.159395217896 29.655189514160 0.999999 0.000978 0.000978
44.457576751709 50.000000000000 17.864265441895 0.000978 0.999999 0.000978
0.000000000000 28.704395294189 2.278334856033 -0.999999 -0.000978 0.000978
18.551383972168 0.000000000000 2.178574085236 0.000978 -0.999999 0.000978
27.345998764038 14.495571136475 50.000000000000 0.000978 0.000978 0.999999
37.152473449707 50.000000000000 38.536537170410 0.000978 0.999999 0.000978
50.000000000000 2.975656986237 41.119300842285 0.999999 0.000978 0.000978
0.000000000000 34.414886474609 13.529870033264 -0.999999 -0.000978 0.000978
44.221405029297 10.338039398193 50.000000000000 0.000978 0.000978 0.999999
7.192586898804 50.000000000000 11.089268684387 0.000978 0.999999 0.000978
20.052061080933 50.000000000000 4.318103790283 0.000978 0.999999 0.000978
0.000000000000 31.738910675049 7.848433017731 -0.999999 -0.000978 0.000978
38.643566131592 0.000000000000 5.086091995239 0.000978 -0.999999 0.000978
3.506389617920 0.000000000000 34.142150878906 0.000978 -0.999999 0.000978
35.191719055176 50.000000000000 5.756954669952 0.000978 0.999999 0.000978
29.597141265869 0.000000000000 11.956528663635 0.000978 -0.999999 0.000978
0.000000000000 28.012765884399 43.514907836914 -0.999999 -0.000978 0.000978
34.802074432373 43.343921661377 0.000000000000 0.000978 0.000978 -0.999999
50.000000000000 41.767494201660 9.221193313599 0.999999 0.000978 0.000978
34.148681640625 50.000000000000 1.800501942635 0.000978 0.999999 0.000978
37.066627502441 10.343345642090 0.000000000000 0.000978 0.000978 -0.999999
34.777473449707 50.000000000000 17.359020233154 0.000978 0.999999 0.000978
39.828937530518 24.145801544189 50.000000000000 0.000978 0.000978 0.999999
29.013019561768 12.992244720459 0.000000000000 0.000978 0.000978 -0.999999
34.020046234131 23.359407424927 0.000000000000 0.000978 0.000978 -0.999999
50.000000000000 41.778285980225 2.322294712067 0.999999 0.000978 0.000978
29.007795333862 50.000000000000 15.151333808899 0.000978 0.999999 0.000978
50.000000000000 23.103252410889 7.750303745270 0.999999 0.000978 0.000978
0.000000000000 11.060731887817 20.019393920898 -0.999999 -0.000978 0.000978
0.000000000000 37.825054168701 3.267564773560 -0.999999 -0.000978 0.000978
50.000000000000 1.963107466698 22.106393814087 0.999999 0.000978 0.000978
7.381271839142 10.285113334656 50.000000000000 0.000978 0.000978 0.999999
28.937095642090 50.000000000000 46.403400421143 0.000978 0.999999 0.000978
42.913032531738 17.634889602661 50.000000000000 0.000978 0.000978 0.999999
49.567317962646 45.849258422852 50.000000000000 0.000978 0.000978 0.999999
0.000000000000 0.544312834740 42.383491516113 -0.999999 -0.000978 0.000978
46.333816528320 0.000000000000 9.326786041260 0.000978 -0.999999 0.000978
50.000000000000 33.862117767334 39.063613891602 0.999999 0.000978 0.000978
33.538589477539 50.000000000000 4.630705833435 0.000978 0.999999 0.000978
24.047153472900 0.000000000000 30.577926635742 0.000978 -0.999999 0.000978
40.855201721191 47.053756713867 0.000000000000 0.000978 0.000978 -0.999999
44.353240966797 44.175235748291 0.000000000000 0.000978 0.000978 -0.999999
5.238488197327 48.414112091064 50.000000000000 0.000978 0.000978 0.999999
0.000000000000 14.307405471802 17.909084320068 -0.999999 -0.000978 0.000978
33.098533630371 8.046876907349 50.000000000000 0.000978 0.000978 0.999999
0.000000000000 25.157924652100 2.066230058670 -0.999999 -0.000978 0.000978
0.000000000000 31.485120773315 14.537310600281 -0.999999 -0.000978 0.000978
38.577449798584 38.703147888184 0.000000000000 0.000978 0.000978 -0.999999
24.625040054321 21.202974319458 0.000000000000 0.000978 0.000978 -0.999999
50.000000000000 22.399381637573 48.371868133545 0.999999 0.000978 0.000978
0.000000000000 47.600387573242 13.845334053040 -0.999999 -0.000978 0.000978
0.000000000000 44.600090026855 34.949729919434 -0.999999 -0.000978 0.000978
25.865438461304 45.421924591064 0.000000000000 0.000978 0.000978 -0.999999
11.412823677063 39.994613647461 50.000000000000 0.000978 0.000978 0.999999
24.793251037598 50.000000000000 29.562335968018 0.000978 0.999999 0.000978
42.057060241699 4.665318489075 50.000000000000 0.000978 0.000978 0.999999
6.100695133209 50.000000000000 33.480865478516 0.000978 0.999999 0.000978
10.665060997009 50.000000000000 34.247455596924 0.000978 0.999999 0.000978
0.000000000000 8.739271163940 47.537723541260 -0.999999 -0.000978 0.000978
28.496587753296 50.000000000000 30.754661560059 0.000978 0.999999 0.000978
0.000000000000 36.047569274902 21.167701721191 -0.999999 -0.000978 0.000978
0.000000000000 12.868585586548 33.210479736328 -0.999999 -0.000978 0.000978
28.191919326782 43.839874267578 50.000000000000 0.000978 0.000978 0.999999
35.094738006592 1.168683409691 50.000000000000 0.000978 0.000978 0.999999
0.000000000000 5.301208019257 41.177005767822 -0.999999 -0.000978 0.000978
13.426986694336 34.027458190918 0.000000000000 0.000978 0.000978 -0.999999
0.000000000000 39.873825073242 5.245368480682 -0.999999 -0.000978 0.000978
29.650186538696 10.280076980591 50.000000000000 0.000978 0.000978 0.999999
36.540481567383 6.615373611450 0.000000000000 0.000978 0.000978 -0.999999
46.517345428467 29.875696182251 50.000000000000 0.000978 0.000978 0.999999
43.023540496826 50.000000000000 41.372211456299 0.000978 0.999999 0.000978
17.713544845581 50.000000000000 40.217159271240 0.000978 0.999999 0.000978
0.000000000000 44.871288299561 16.602506637573 -0.999999 -0.000978 0.000978
0.000000000000 21.835945129395 4.951408863068 -0.999999 -0.000978 0.000978
50.000000000000 25.211185455322 28.376113891602 0.999999 0.000978 0.000978
19.709081649780 18.199363708496 50.000000000000 0.000978 0.000978 0.999999
13.404937744141 10.657595634460 50.000000000000 0.000978 0.000978 0.999999
0.000000000000 14.448573112488 42.968372344971 -0.999999 -0.000978 0.000978
17.630088806152 4.318568229675 50.000000000000 0.000978 0.000978 0.999999
20.066921234131 0.000000000000 22.723535537720 0.000978 -0.999999 0.000978
0.000000000000 18.753133773804 27.929666519165 -0.999999 -0.000978 0.000978
50.000000000000 9.889275550842 48.779411315918 0.999999 0.000978 0.000978
0.000000000000 23.575981140137 46.708694458008 -0.999999 -0.000978 0.000978
24.337167739868 31.186439514160 50.000000000000 0.000978 0.000978 0.999999
50.000000000000 9.058934211731 19.598968505859 0.999999 0.000978 0.000978
50.000000000000 48.188499450684 24.303974151611 0.999999 0.000978 0.000978
10.947075843811 50.000000000000 31.602638244629 0.000978 0.999999 0.000978
19.184938430786 17.264282226563 0.000000000000 0.000978 0.000978 -0.999999
26.460540771484 0.000000000000 26.564029693604 0.000978 -0.999999 0.000978
3.486781358719 0.000000000000 16.590974807739 0.000978 -0.999999 0.000978
0.000000000000 19.483209609985 33.799434661865 -0.999999 -0.000978 0.000978
0.000000000000 25.047222137451 15.013884544373 -0.999999 -0.000978 0.000978
11.648812294006 11.583166122437 0.000000000000 0.000978 0.000978 -0.999999
39.487342834473 50.000000000000 43.462131500244 0.000978 0.999999 0.000978
0.000000000000 28.124736785889 11.578454017639 -0.999999 -0.000978 0.000978
0.000000000000 31.791603088379 36.400535583496 -0.999999 -0.000978 0.000978
6.304419517517 50.000000000000 24.992427825928 0.000978 0.999999 0.000978
8.354662895203 50.000000000000 17.178121566772 0.000978 0.999999 0.000978
50.000000000000 11.995784759521 48.721462249756 0.999999 0.000978 0.000978
21.016672134399 0.000000000000 16.871280670166 0.000978 -0.999999 0.000978
